ply
format ascii 1.0
element vertex 821
property float x
property float y
property float z
end_header
18.960018157958984 -10.974310874938965 -23.964277267456055
19.061201095581055 -11.304664611816406 -24.003143310546875
19.14839744567871 -11.620078086853027 -24.036788940429688
19.225147247314453 -11.92337417602539 -24.066530227661133
19.28770637512207 -12.215747833251953 -24.090993881225586
19.335960388183594 -12.499388694763184 -24.110151290893555
19.369800567626953 -12.776487350463867 -24.123971939086914
19.392805099487305 -13.049135208129883 -24.1337833404541
19.404891967773438 -13.318975448608398 -24.139562606811523
19.405977249145508 -13.587652206420898 -24.14128875732422
19.392255783081055 -13.857452392578125 -24.137569427490234
19.367347717285156 -14.129739761352539 -24.12974739074707
19.33490753173828 -14.405144691467285 -24.11916732788086
19.2911319732666 -14.685956954956055 -24.10444450378418
19.23969268798828 -14.972442626953125 -24.08692741394043
19.1805362701416 -15.265697479248047 -24.066604614257812
19.10982894897461 -15.568557739257812 -24.04207992553711
19.03506088256836 -15.87881851196289 -24.016094207763672
18.95240592956543 -16.199134826660156 -23.98725700378418
18.865612030029297 -16.528310775756836 -23.956941604614258
18.770843505859375 -16.869365692138672 -23.923748016357422
18.671859741210938 -17.220745086669922 -23.889057159423828
18.56480598449707 -17.585826873779297 -23.85146141052246
18.457307815551758 -17.959671020507812 -23.81374740600586
18.34551239013672 -18.34547996520996 -23.77450942993164
18.22939682006836 -18.74380111694336 -23.73374366760254
18.10892677307129 -19.155181884765625 -23.69144058227539
-31.320022583007812 51.09254455566406 -1.986541748046875
-29.539581298828125 46.01896667480469 -2.775392532348633
-27.85944366455078 41.263519287109375 -3.5195579528808594
-26.252750396728516 36.781707763671875 -4.230686187744141
-24.66452407836914 32.50940704345703 -4.932435989379883
-23.17868423461914 28.51433753967285 -5.588933944702148
-21.768146514892578 24.756399154663086 -6.211894989013672
-20.657958984375 21.391386032104492 -6.705320358276367
-22.43770980834961 20.17949867248535 -5.964803695678711
-24.62096405029297 19.05003547668457 -5.053670883178711
18.40936851501465 -9.06562614440918 -23.396535873413086
18.619094848632812 -9.522616386413574 -23.488384246826172
18.766069412231445 -9.925156593322754 -23.55337905883789
18.89965057373047 -10.304725646972656 -23.61255645751953
19.023300170898438 -10.664875030517578 -23.667400360107422
19.133352279663086 -11.00606918334961 -23.716371536254883
19.22969627380371 -11.330497741699219 -23.75943946838379
19.31222152709961 -11.640353202819824 -23.796573638916016
19.384424209594727 -11.938455581665039 -23.829269409179688
19.442604064941406 -12.22599983215332 -23.85597801208496
19.486648559570312 -12.505176544189453 -23.876667022705078
19.520082473754883 -12.77825927734375 -23.892839431762695
19.542821884155273 -13.046892166137695 -23.90447235107422
19.554784774780273 -13.31271743774414 -23.911544799804688
19.552223205566406 -13.577840805053711 -23.912492752075195
19.5386962890625 -13.843809127807617 -23.90882682800293
19.517807006835938 -14.111433982849121 -23.90207290649414
19.482112884521484 -14.383833885192871 -23.889118194580078
19.442607879638672 -14.659618377685547 -23.874582290649414
19.391841888427734 -14.94208812713623 -23.85535430908203
19.329734802246094 -15.232884407043457 -23.83141326904297
19.263654708862305 -15.530169486999512 -23.80584716796875
19.18984031677246 -15.836413383483887 -23.777090072631836
19.108232498168945 -16.152711868286133 -23.745128631591797
19.02253532409668 -16.47787094116211 -23.711511611938477
18.932720184326172 -16.81243896484375 -23.676231384277344
18.83498191833496 -17.159616470336914 -23.63770866394043
18.733051300048828 -17.517662048339844 -23.597505569458008
18.626901626586914 -17.88712501525879 -23.55560874938965
18.516502380371094 -18.268550872802734 -23.51201629638672
18.4056396484375 -18.65910530090332 -23.46829605102539
18.28666877746582 -19.065921783447266 -23.42128562927246
-31.106342315673828 54.92820739746094 1.2025890350341797
-29.413593292236328 49.77709197998047 0.3432292938232422
-27.737972259521484 44.854461669921875 -0.5056018829345703
-26.106998443603516 40.184364318847656 -1.3305473327636719
-24.575862884521484 35.81193542480469 -2.104869842529297
-23.090572357177734 31.668672561645508 -2.8549861907958984
-21.679088592529297 27.769853591918945 -3.5674266815185547
-20.342079162597656 24.10231590270996 -4.242012023925781
-20.131732940673828 21.45538902282715 -4.369714736938477
-22.000560760498047 20.31777000427246 -3.4921016693115234
-24.184764862060547 19.196306228637695 -2.464214324951172
18.631357192993164 -9.147123336791992 -23.138076782226562
18.796491622924805 -9.57408332824707 -23.22112464904785
18.938053131103516 -9.969970703125 -23.292627334594727
19.06639289855957 -10.343250274658203 -23.357601165771484
19.181396484375 -10.696114540100098 -23.416015625
19.286487579345703 -11.031932830810547 -23.46953582763672
19.378040313720703 -11.351350784301758 -23.51643943786621
19.459495544433594 -11.657373428344727 -23.55839729309082
19.527204513549805 -11.95101261138916 -23.593685150146484
19.58106231689453 -12.234457969665527 -23.622272491455078
19.62453269958496 -12.510167121887207 -23.645837783813477
19.657533645629883 -12.77978229522705 -23.66435432434082
19.676382064819336 -13.045045852661133 -23.676090240478516
19.6845760345459 -13.307866096496582 -23.682729721069336
19.682031631469727 -13.569887161254883 -23.684249877929688
19.67228889465332 -13.83210563659668 -23.68234634399414
19.648025512695312 -14.097272872924805 -23.67356300354004
19.616416931152344 -14.365558624267578 -23.661314010620117
19.57375144958496 -14.639250755310059 -23.643861770629883
19.52361297607422 -14.91861629486084 -23.622909545898438
19.465944290161133 -15.204750061035156 -23.598445892333984
19.40068817138672 -15.498748779296875 -23.570451736450195
19.33148193359375 -15.799781799316406 -23.5406494140625
19.250896453857422 -16.112611770629883 -23.505556106567383
19.16997528076172 -16.4320125579834 -23.47037124633789
19.077564239501953 -16.765399932861328 -23.42986297607422
18.98476219177246 -17.10645294189453 -23.389249801635742
18.884096145629883 -17.460847854614258 -23.34503173828125
18.783004760742188 -17.823638916015625 -23.300697326660156
18.6777286529541 -18.198028564453125 -23.254493713378906
18.564476013183594 -18.587949752807617 -23.204654693603516
18.45451545715332 -18.983797073364258 -23.15644645690918
-29.289138793945312 53.649818420410156 3.554515838623047
-27.645782470703125 48.58696746826172 2.612916946411133
-26.046173095703125 43.779563903808594 1.697988510131836
-24.598461151123047 39.33252716064453 0.8686637878417969
-23.03398895263672 34.949974060058594 -0.021928787231445312
-21.622600555419922 30.904417037963867 -0.8265953063964844
-20.284191131591797 27.097455978393555 -1.589263916015625
-19.019432067871094 23.515947341918945 -2.309755325317383
-19.76703643798828 21.64609718322754 -1.9368057250976562
-21.640270233154297 20.515016555786133 -0.95513916015625
-23.824905395507812 19.397180557250977 0.19238853454589844
18.815288543701172 -9.207703590393066 -22.874818801879883
18.957557678222656 -9.617915153503418 -22.955963134765625
19.093765258789062 -10.007879257202148 -23.033611297607422
19.213449478149414 -10.374055862426758 -23.102153778076172
19.326904296875 -10.723272323608398 -23.167156219482422
19.423614501953125 -11.053081512451172 -23.222991943359375
19.513927459716797 -11.369215965270996 -23.27524185180664
19.58727264404297 -11.67032527923584 -23.31826400756836
19.654054641723633 -11.961045265197754 -23.357654571533203
19.707168579101562 -12.241570472717285 -23.38964080810547
19.746503829956055 -12.514092445373535 -23.414188385009766
19.775493621826172 -12.78088665008545 -23.433155059814453
19.794048309326172 -13.043594360351562 -23.446516036987305
19.802091598510742 -13.30385971069336 -23.45425033569336
19.799535751342773 -13.563325881958008 -23.456336975097656
19.78987693786621 -13.82298755645752 -23.45464515686035
19.765884399414062 -14.085599899291992 -23.44536590576172
19.734638214111328 -14.35132884979248 -23.432270050048828
19.696086883544922 -14.621271133422852 -23.415340423583984
19.646556854248047 -14.89789867401123 -23.39266014099121
19.589590072631836 -15.181294441223145 -23.366113662719727
19.528764724731445 -15.47081184387207 -23.33759307861328
19.456764221191406 -15.770848274230957 -23.30327033996582
19.380815505981445 -16.07883071899414 -23.266948699951172
19.300888061523438 -16.39531135559082 -23.22862434387207
19.21328353881836 -16.723304748535156 -23.18636703491211
19.121623992919922 -17.061254501342773 -23.142086029052734
19.0258846282959 -17.40970802307129 -23.095773696899414
18.926036834716797 -17.76921272277832 -23.047420501708984
18.822053909301758 -18.140316009521484 -22.99702262878418
18.71762466430664 -18.52018165588379 -22.946502685546875
18.605295181274414 -18.915943145751953 -22.891990661621094
-27.580184936523438 52.46979522705078 5.844362258911133
-26.01209259033203 47.522178649902344 4.83949089050293
-24.487293243408203 42.82415771484375 3.86419677734375
-23.03278350830078 38.395408630371094 2.9347190856933594
-21.675865173339844 34.249732971191406 2.067373275756836
-20.417423248291016 30.3696231842041 1.2624034881591797
-19.36544418334961 26.833696365356445 0.5847568511962891
-18.065303802490234 23.22307014465332 -0.24043655395507812
-19.449432373046875 21.87904930114746 0.5539817810058594
-21.32646942138672 20.751588821411133 1.6425647735595703
18.603191375732422 -8.675972938537598 -22.380279541015625
18.969356536865234 -9.25154972076416 -22.60552978515625
19.10626220703125 -9.656021118164062 -22.69281768798828
19.233766555786133 -10.038881301879883 -22.77420997619629
19.348369598388672 -10.40023136138916 -22.847646713256836
19.453386306762695 -10.743620872497559 -22.915138244628906
19.548736572265625 -11.070694923400879 -22.976665496826172
19.63433074951172 -11.383094787597656 -23.032203674316406
19.706634521484375 -11.681650161743164 -23.07967758178711
19.765531539916992 -11.968551635742188 -23.119060516357422
19.817867279052734 -12.24688720703125 -23.15443229675293
19.856611251831055 -12.517220497131348 -23.181659698486328
19.885149002075195 -12.781824111938477 -23.202775955200195
19.899890899658203 -13.042440414428711 -23.215694427490234
19.907752990722656 -13.300698280334473 -23.224515914916992
19.90515899658203 -13.55815601348877 -23.22715950012207
19.89202308654785 -13.816455841064453 -23.22359848022461
19.87180519104004 -14.076414108276367 -23.215890884399414
19.840896606445312 -14.34013557434082 -23.20193862915039
19.802776336669922 -14.60806941986084 -23.183801651000977
19.75738525390625 -14.881311416625977 -23.16146469116211
19.701091766357422 -15.162515640258789 -23.13282585144043
19.640987396240234 -15.44984245300293 -23.102041244506836
19.573448181152344 -15.745762825012207 -23.06700897216797
19.50202178955078 -16.049266815185547 -23.029809951782227
19.42306900024414 -16.363189697265625 -22.988340377807617
19.336530685424805 -16.688627243041992 -22.942584991455078
19.249622344970703 -17.021366119384766 -22.896728515625
19.155054092407227 -17.367080688476562 -22.846567153930664
19.060077667236328 -17.7208251953125 -22.796295166015625
18.961029052734375 -18.085803985595703 -22.743803024291992
18.85421371459961 -18.46595001220703 -22.686975479125977
18.750612258911133 -18.851655960083008 -22.63213539123535
-26.00204849243164 51.42095184326172 8.102319717407227
-24.481983184814453 46.55137634277344 7.022420883178711
-23.056819915771484 41.988250732421875 6.009988784790039
-21.675094604492188 37.657203674316406 5.030200958251953
-20.33725357055664 33.549476623535156 4.083179473876953
-19.070064544677734 29.681814193725586 3.186614990234375
-17.847801208496094 26.01702308654785 2.323099136352539
-17.544479370117188 23.291444778442383 2.0739097595214844
-19.20321273803711 22.175363540649414 3.1287574768066406
-21.08352279663086 21.04714012145996 4.327146530151367
18.927236557006836 -8.837385177612305 -22.208839416503906
19.108070373535156 -9.287029266357422 -22.33481788635254
19.239665985107422 -9.686490058898926 -22.42788314819336
19.361988067626953 -10.064704895019531 -22.5145206451416
19.471572875976562 -10.421773910522461 -22.59248924255371
19.57169532775879 -10.761247634887695 -22.663978576660156
19.66227149963379 -11.084770202636719 -22.728967666625977
19.73981475830078 -11.392988204956055 -22.785207748413086
19.811038970947266 -11.689719200134277 -22.83712387084961
19.86904525756836 -11.974796295166016 -22.88024139404297
19.91372299194336 -12.250409126281738 -22.914527893066406
19.95183753967285 -12.519281387329102 -22.944425582885742
19.97988510131836 -12.782425880432129 -22.967681884765625
19.994327545166016 -13.041582107543945 -22.982032775878906
20.001983642578125 -13.298379898071289 -22.99193572998047
19.99932289123535 -13.554377555847168 -22.995128631591797
19.98626136779785 -13.811217308044434 -22.991588592529297
19.966209411621094 -14.069714546203613 -22.98354721069336
19.93911361694336 -14.330964088439941 -22.970985412597656
19.901405334472656 -14.59725570678711 -22.951635360717773
19.85651969909668 -14.868853569030762 -22.927730560302734
19.804405212402344 -15.146856307983398 -22.89925765991211
19.74500274658203 -15.432356834411621 -22.866199493408203
19.678260803222656 -15.72645092010498 -22.828542709350586
19.607677459716797 -16.028127670288086 -22.788543701171875
19.53322982788086 -16.337936401367188 -22.74618911743164
19.451311111450195 -16.658893585205078 -22.699201583862305
19.365449905395508 -16.98944091796875 -22.649843215942383
19.27562141418457 -17.33012580871582 -22.598102569580078
19.18179702758789 -17.68149757385254 -22.543975830078125
19.08395004272461 -18.044103622436523 -22.48745346069336
18.985673904418945 -18.41510581970215 -22.430816650390625
18.883338928222656 -18.798072814941406 -22.37177276611328
-24.499069213867188 50.43768310546875 10.307584762573242
-23.077743530273438 45.70591735839844 9.193334579467773
-21.724536895751953 41.24195861816406 8.133398056030273
-20.388511657714844 36.97582244873047 7.090066909790039
-19.12164306640625 32.95703887939453 6.101339340209961
-17.924602508544922 29.172483444213867 5.167388916015625
-16.74600601196289 25.560922622680664 4.250389099121094
-17.334571838378906 23.63077735900879 4.625022888183594
-18.99883270263672 22.513925552368164 5.781198501586914
-20.881816864013672 21.38202476501465 7.092264175415039
19.093284606933594 -8.894164085388184 -21.95275115966797
19.23529052734375 -9.316234588623047 -22.062946319580078
19.36164665222168 -9.711231231689453 -22.16143035888672
19.475528717041016 -10.083621978759766 -22.250558853149414
19.580154418945312 -10.437139511108398 -22.33269691467285
19.675437927246094 -10.77342700958252 -22.407821655273438
19.76129913330078 -11.09412956237793 -22.475908279418945
19.8376522064209 -11.400887489318848 -22.536937713623047
19.9044132232666 -11.695344924926758 -22.59088706970215
19.958126068115234 -11.978513717651367 -22.63532257080078
20.00206184387207 -12.253031730651855 -22.67262840270996
20.039527893066406 -12.5208101272583 -22.70519256591797
20.063669204711914 -12.78277587890625 -22.728168487548828
20.081192016601562 -13.040921211242676 -22.746362686157227
20.085201263427734 -13.296905517578125 -22.754920959472656
20.082447052001953 -13.551989555358887 -22.758655548095703
20.0728702545166 -13.807271003723145 -22.75755500793457
20.052968978881836 -14.06467342376709 -22.749174118041992
20.022659301757812 -14.325838088989258 -22.733489990234375
19.988792419433594 -14.590023040771484 -22.715349197387695
19.944385528564453 -14.860526084899902 -22.689868927001953
19.896326065063477 -15.135873794555664 -22.66190528869629
19.83759880065918 -15.420095443725586 -22.626569747924805
19.775127410888672 -15.710987091064453 -22.58872413635254
19.70888328552246 -16.009098052978516 -22.548362731933594
19.63531494140625 -16.3172607421875 -22.503028869628906
19.55790138244629 -16.63410186767578 -22.455158233642578
19.473072052001953 -16.96282386779785 -22.40229034423828
19.38787078857422 -17.298847198486328 -22.349321365356445
19.295181274414062 -17.648208618164062 -22.29133415222168
19.20208168029785 -18.005603790283203 -22.233238220214844
19.104997634887695 -18.374414443969727 -22.172565460205078
19.007484436035156 -18.751623153686523 -22.111778259277344
-23.119415283203125 49.585601806640625 12.50922966003418
-21.769588470458984 44.9544677734375 11.348867416381836
-20.461708068847656 40.555419921875 10.226804733276367
-19.221637725830078 36.408103942871094 9.163518905639648
-18.0245361328125 32.472434997558594 8.138818740844727
-16.870861053466797 28.73963737487793 7.152814865112305
-15.889293670654297 25.3211612701416 6.307722091674805
-17.21630096435547 24.0604305267334 7.300287246704102
-19.091999053955078 23.10593605041504 8.724359512329102
-20.900188446044922 21.89385414123535 10.089731216430664
19.22455596923828 -8.928197860717773 -21.679872512817383
19.351442337036133 -9.339163780212402 -21.788328170776367
19.47262191772461 -9.730245590209961 -21.891870498657227
19.581497192382812 -10.099084854125977 -21.98534393310547
19.681238174438477 -10.449416160583496 -22.071292877197266
19.771759033203125 -10.782883644104004 -22.14969253540039
19.85297966003418 -11.101130485534668 -22.220521926879883
19.924814224243164 -11.405797958374023 -22.283756256103516
19.987178802490234 -11.698529243469238 -22.33937644958496
20.039989471435547 -11.980968475341797 -22.38735580444336
20.083166122436523 -12.25475788116455 -22.42767333984375
20.116621017456055 -12.521539688110352 -22.460308074951172
20.140274047851562 -12.782958030700684 -22.4852352142334
20.15403938293457 -13.040654182434082 -22.50243377685547
20.161205291748047 -13.295992851257324 -22.514476776123047
20.15833854675293 -13.550529479980469 -22.518749237060547
20.14874267578125 -13.80526351928711 -22.517833709716797
20.128963470458984 -14.062118530273438 -22.509105682373047
20.102327346801758 -14.321723937988281 -22.495155334472656
20.065357208251953 -14.586371421813965 -22.473352432250977
20.024829864501953 -14.854949951171875 -22.448902130126953
19.977275848388672 -15.12956714630127 -22.41918182373047
19.922643661499023 -15.411317825317383 -22.384178161621094
19.864330291748047 -15.699373245239258 -22.34649085998535
19.798845291137695 -15.99638557434082 -22.30349349975586
19.726131439208984 -16.30345344543457 -22.255170822143555
19.65310287475586 -16.616727828979492 -22.206764221191406
19.572769165039062 -16.941516876220703 -22.15300941467285
19.48858070373535 -17.276077270507812 -22.096527099609375
19.400508880615234 -17.620960235595703 -22.037309646606445
19.31204605102539 -17.9735107421875 -21.977985382080078
19.21613311767578 -18.340492248535156 -21.91327667236328
19.11979103088379 -18.71587371826172 -21.84844970703125
-21.833740234375 48.83190155029297 14.702508926391602
-20.678653717041016 44.4537353515625 13.61039924621582
-19.3160400390625 39.988372802734375 12.342199325561523
-18.119861602783203 35.897216796875 11.223978042602539
-16.966064453125 32.01476287841797 10.14720344543457
-15.88027572631836 28.3577823638916 9.133810043334961
-15.545536041259766 25.56220054626465 8.773408889770508
-17.033077239990234 24.444948196411133 9.985567092895508
-18.706581115722656 23.317808151245117 11.352994918823242
19.109174728393555 -8.444559097290039 -21.1922664642334
19.33843994140625 -8.950860023498535 -21.398601531982422
19.46014976501465 -9.357909202575684 -21.512113571166992
19.573013305664062 -9.7435302734375 -21.617610931396484
19.67694854736328 -10.109366416931152 -21.715070724487305
19.77187156677246 -10.457060813903809 -21.80447006225586
19.857696533203125 -10.788254737854004 -21.885784149169922
19.934341430664062 -11.104592323303223 -21.95899200439453
20.00498390197754 -11.408713340759277 -22.02682876586914
20.063026428222656 -11.700084686279297 -22.083759307861328
20.11164093017578 -11.981527328491211 -22.132516860961914
20.154027938842773 -12.255134582519531 -22.17584228515625
20.18683624267578 -12.521735191345215 -22.210952758789062
20.20998191833496 -12.782971382141113 -22.237825393676758
20.22338104248047 -13.040486335754395 -22.256439208984375
20.226951599121094 -13.29592227935791 -22.266769409179688
20.227277755737305 -13.549996376037598 -22.274349212646484
20.21430015563965 -13.805193901062012 -22.27083396911621
20.197967529296875 -14.061220169067383 -22.264535903930664
20.171527862548828 -14.320643424987793 -22.249879837036133
20.138269424438477 -14.583913803100586 -22.229629516601562
20.098134994506836 -14.852128028869629 -22.203771591186523
20.054460525512695 -15.124820709228516 -22.175081253051758
20.000417709350586 -15.406022071838379 -22.137962341308594
19.9427433013916 -15.69352912902832 -22.09798812866211
19.88140869140625 -15.98788833618164 -22.055147171020508
19.812955856323242 -16.291934967041016 -22.006633758544922
19.74077033996582 -16.60429573059082 -21.95523452758789
19.66482162475586 -16.925518035888672 -21.900943756103516
19.5850830078125 -17.256145477294922 -21.843751907348633
19.50152587890625 -17.596731185913086 -21.783653259277344
19.41412353515625 -17.947818756103516 -21.720638275146484
19.322845458984375 -18.30995750427246 -21.65470314025879
19.231159210205078 -18.68012809753418 -21.588655471801758
-20.63867950439453 48.176605224609375 16.90013313293457
-19.40351104736328 43.702239990234375 15.64155387878418
-18.23382568359375 39.48108673095703 14.45020866394043
-17.10561752319336 35.47157287597656 13.303102493286133
-16.019332885742188 31.66493797302246 12.200345993041992
-14.975414276123047 28.052412033081055 11.142068862915039
-15.443241119384766 26.04365348815918 11.499807357788086
-16.912010192871094 24.897214889526367 12.788694381713867
-18.61420440673828 23.78313636779785 14.289316177368164
-20.55184555053711 22.661989212036133 16.00221061706543
-22.77730941772461 21.53074836730957 17.974584579467773
19.37218475341797 -9.246929168701172 -21.058156967163086
19.52703094482422 -9.668965339660645 -21.211477279663086
19.67334747314453 -10.0661039352417 -21.356300354003906
19.80467987060547 -10.43690013885498 -21.48674964904785
19.895322799682617 -10.773193359375 -21.579364776611328
19.980167388916016 -11.09507942199707 -21.66628646850586
20.052730560302734 -11.40165901184082 -21.741628646850586
20.119348526000977 -11.696752548217773 -21.811237335205078
20.173498153686523 -11.98019027709961 -21.869216918945312
20.218311309814453 -12.254613876342773 -21.918479919433594
20.247203826904297 -12.521130561828613 -21.9531192779541
20.26981544494629 -12.782732009887695 -21.981929779052734
20.282821655273438 -13.04061222076416 -22.001953125
20.289417266845703 -13.296133041381836 -22.01611328125
20.286258697509766 -13.550853729248047 -22.02144432067871
20.276559829711914 -13.805769920349121 -22.020877838134766
20.260265350341797 -14.061978340148926 -22.014400482177734
20.234004974365234 -14.32158374786377 -21.999034881591797
20.204341888427734 -14.583843231201172 -21.98068618774414
20.164583206176758 -14.852056503295898 -21.953414916992188
20.12133026123047 -15.124749183654785 -21.92313575744629
20.071205139160156 -15.40420913696289 -21.88686752319336
20.01751136779785 -15.68960952758789 -21.847572326660156
19.956851959228516 -15.983602523803711 -21.802263259887695
19.892549514770508 -16.284996032714844 -21.753904342651367
19.8245792388916 -16.594337463378906 -21.702491760253906
19.74951171875 -16.914825439453125 -21.645029067993164
19.670700073242188 -17.24472427368164 -21.584491729736328
19.591537475585938 -17.581558227539062 -21.52385711669922
19.50859260559082 -17.928531646728516 -21.46013641357422
19.42184066772461 -18.286190032958984 -21.393321990966797
19.33125114440918 -18.655080795288086 -21.323406219482422
24.98689079284668 -9.714885711669922 -8.937481880187988
25.07328224182129 -9.981502532958984 -8.908398628234863
25.10100555419922 -10.205326080322266 -8.89538860321045
25.069673538208008 -10.394023895263672 -8.898347854614258
24.978891372680664 -10.55526065826416 -8.917170524597168
24.77728271484375 -10.673792839050293 -8.965343475341797
-43.83013153076172 60.832847595214844 -25.373886108398438
-42.75096893310547 56.35911560058594 -25.030208587646484
22.075260162353516 -6.650804042816162 -9.45516586303711
22.206954956054688 -7.103976726531982 -9.415512084960938
22.21079444885254 -7.450865268707275 -9.406132698059082
25.106740951538086 -9.760037422180176 -8.722818374633789
25.19635772705078 -10.026372909545898 -8.696870803833008
25.219640731811523 -10.244636535644531 -8.686455726623535
25.192874908447266 -10.432687759399414 -8.687610626220703
25.111534118652344 -10.59500503540039 -8.701204299926758
24.916433334350586 -10.711978912353516 -8.740522384643555
-42.267738342285156 60.11127471923828 -22.056049346923828
-41.201332092285156 55.669677734375 -21.76648712158203
-43.248443603515625 54.20732879638672 -22.096067428588867
-45.629844665527344 52.85974884033203 -22.487476348876953
22.252735137939453 -6.724935531616211 -9.110224723815918
22.387020111083984 -7.177278995513916 -9.076184272766113
22.394935607910156 -7.522974014282227 -9.066950798034668
25.22096824645996 -9.802367210388184 -8.514596939086914
25.309589385986328 -10.06596565246582 -8.492923736572266
25.336759567260742 -10.283947944641113 -8.483172416687012
25.314468383789062 -10.471351623535156 -8.482876777648926
25.234088897705078 -10.630565643310547 -8.493511199951172
25.04538345336914 -10.746345520019531 -8.524323463439941
-40.722007751464844 59.38971710205078 -18.800365447998047
-39.66834259033203 54.98023986816406 -18.564918518066406
-41.62763977050781 53.490264892578125 -18.802967071533203
-43.917144775390625 52.12089538574219 -19.08879852294922
22.420063018798828 -6.792327880859375 -8.774296760559082
22.556825637817383 -7.244207859039307 -8.746219635009766
22.564653396606445 -7.586068630218506 -8.738097190856934
25.3297176361084 -9.841875076293945 -8.312288284301758
25.417333602905273 -10.102917671203613 -8.29488754272461
25.44420623779297 -10.318344116210938 -8.286759376525879
25.42218780517578 -10.503192901611328 -8.285968780517578
25.34684181213379 -10.661943435668945 -8.293031692504883
25.168521881103516 -10.778802871704102 -8.315083503723145
-39.31926727294922 58.799339294433594 -15.621430397033691
-38.21533203125 54.353477478027344 -15.432759284973145
-40.151947021484375 52.89270782470703 -15.5921049118042
-42.35136413574219 51.49571990966797 -15.777926445007324
22.581514358520508 -6.856350421905518 -8.445877075195312
22.716655731201172 -7.30476188659668 -8.42455768585205
22.728378295898438 -7.6461591720581055 -8.41710090637207
25.433128356933594 -9.878561019897461 -8.115362167358398
25.519729614257812 -10.137229919433594 -8.1022310256958
25.546297073364258 -10.350284576416016 -8.095724105834961
25.528581619262695 -10.5350341796875 -8.094005584716797
25.458173751831055 -10.693320274353027 -8.097848892211914
25.281932830810547 -10.807442665100098 -8.112698554992676
-37.93016052246094 58.208961486816406 -12.493345260620117
-36.90258026123047 53.85206604003906 -12.365964889526367
-38.75410461425781 52.35490417480469 -12.442132949829102
-40.86509704589844 50.9273681640625 -12.533559799194336
22.729352951049805 -6.910264492034912 -8.124977111816406
22.862844467163086 -7.355755805969238 -8.110405921936035
22.878341674804688 -7.69723653793335 -8.103960990905762
25.527376174926758 -9.909603118896484 -7.923550605773926
25.612943649291992 -10.166263580322266 -7.914684772491455
25.643173217773438 -10.379766464233398 -7.909537315368652
25.62566375732422 -10.562326431274414 -7.907495021820068
25.556076049804688 -10.718421936035156 -7.908720016479492
25.38991355895996 -10.834171295166016 -7.915861129760742
-36.67798614501953 57.749786376953125 -9.419403076171875
-35.60194396972656 53.35065460205078 -9.344371795654297
-37.43183898925781 51.876861572265625 -9.344582557678223
-39.51818084716797 50.472686767578125 -9.348747253417969
22.867895126342773 -6.957439422607422 -7.809911727905273
23.003620147705078 -7.403562068939209 -7.801995277404785
23.018878936767578 -7.742304801940918 -7.796999931335449
25.612747192382812 -9.9350004196167 -7.7357940673828125
25.701190948486328 -10.192658424377441 -7.731105804443359
25.731040954589844 -10.404335975646973 -7.727748870849609
25.71569061279297 -10.586206436157227 -7.725339412689209
25.648887634277344 -10.741432189941406 -7.723904609680176
25.488637924194336 -10.857083320617676 -7.724113464355469
-35.497314453125 57.356201171875 -6.383838176727295
-34.435523986816406 52.97460174560547 -6.365548610687256
-36.182891845703125 51.45857238769531 -6.290975093841553
-38.183372497558594 50.01801300048828 -6.209139347076416
23.001270294189453 -7.00124454498291 -7.4997076988220215
23.131418228149414 -7.441806793212891 -7.498623371124268
23.150272369384766 -7.7813639640808105 -7.495159149169922
25.697265625 -9.96039867401123 -7.5512166023254395
25.780729293823242 -10.213773727416992 -7.550870895385742
25.81212615966797 -10.425219535827637 -7.549347877502441
25.796926498413086 -10.605539321899414 -7.546694755554199
25.73479652404785 -10.76130485534668 -7.542821407318115
25.578392028808594 -10.876175880432129 -7.536396503448486
-34.38587188720703 57.028221130371094 -3.378167152404785
-33.338470458984375 52.661224365234375 -3.4165802001953125
-35.004966735839844 51.10003662109375 -3.2728376388549805
-36.981849670410156 49.677001953125 -3.1064891815185547
23.122026443481445 -7.03494119644165 -7.1933135986328125
23.250469207763672 -7.473677635192871 -7.1989641189575195
23.272804260253906 -7.814413547515869 -7.197378635406494
25.769460678100586 -9.977331161499023 -7.369013786315918
25.85567855834961 -10.232250213623047 -7.373190879821777
25.886642456054688 -10.442418098449707 -7.373539447784424
25.873504638671875 -10.622596740722656 -7.370776176452637
25.812084197998047 -10.776992797851562 -7.364538192749023
25.65945816040039 -10.891449928283691 -7.351650714874268
9.441940307617188 -29.482236862182617 -5.919830322265625
9.778141021728516 -30.04853630065918 -5.940272331237793
-33.34137725830078 56.765830993652344 -0.39391613006591797
-32.248992919921875 52.34783935546875 -0.4958615303039551
-33.95550537109375 50.86101531982422 -0.2747807502746582
-35.909088134765625 49.44966125488281 -0.023836612701416016
23.2305908203125 -7.058528423309326 -6.889140605926514
23.36105728149414 -7.499174118041992 -6.901957035064697
23.382993698120117 -7.838449954986572 -6.902157783508301
25.841087341308594 -9.9942626953125 -7.188930034637451
25.922391891479492 -10.245447158813477 -7.197089672088623
25.954803466796875 -10.455930709838867 -7.19952917098999
25.943668365478516 -10.636242866516113 -7.196828842163086
25.88294219970703 -10.789544105529785 -7.1882219314575195
25.732120513916016 -10.902905464172363 -7.168816089630127
8.195272445678711 -20.325843811035156 -4.940081596374512
8.257135391235352 -21.267200469970703 -4.940760135650635
9.930742263793945 -24.124584197998047 -5.125770092010498
4.511951446533203 -28.30232810974121 -4.42777156829834
4.761959075927734 -31.401161193847656 -4.4357147216796875
4.54170036315918 -32.64787292480469 -4.399406433105469
9.755615234375 -29.414546966552734 -5.065218448638916
10.071245193481445 -29.991464614868164 -5.099829196929932
-32.361572265625 56.56904602050781 2.5773820877075195
-31.343412399291992 52.22248077392578 2.425686836242676
-32.971031188964844 50.68175506591797 2.7104053497314453
-34.901451110839844 49.27915954589844 3.0459814071655273
23.334789276123047 -7.078746318817139 -6.586826324462891
23.46346664428711 -7.518296718597412 -6.606544017791748
23.484987258911133 -7.8564772605896 -6.608525276184082
25.900959014892578 -10.002728462219238 -7.009102821350098
25.984895706176758 -10.25600528717041 -7.022130966186523
26.016822814941406 -10.465758323669434 -7.026522636413574
26.005746841430664 -10.645339965820312 -7.023744106292725
25.947580337524414 -10.798956871032715 -7.013078689575195
25.800439834594727 -10.91245174407959 -6.9874677658081055
8.54520034790039 -20.292808532714844 -4.00358772277832
8.605960845947266 -21.22978401184082 -4.009270668029785
10.242549896240234 -24.078800201416016 -4.273685455322266
4.886772155761719 -28.252891540527344 -3.341252326965332
5.132415771484375 -31.34077262878418 -3.367708683013916
4.898088455200195 -32.596641540527344 -3.321575164794922
10.051218032836914 -29.360393524169922 -4.214848518371582
10.362831115722656 -29.934389114379883 -4.265036582946777
-31.444185256958008 56.43785095214844 5.544212341308594
-30.44087028503418 52.097137451171875 5.335934638977051
-32.04925537109375 50.56224060058594 5.691202163696289
-33.898353576660156 49.10865783691406 6.098852157592773
23.427459716796875 -7.088855266571045 -6.284261226654053
23.554319381713867 -7.527858257293701 -6.310872554779053
23.575393676757812 -7.865490913391113 -6.314626693725586
25.95870590209961 -10.009783744812012 -6.829936504364014
26.039636611938477 -10.261283874511719 -6.84698486328125
26.072914123535156 -10.471900939941406 -6.853725433349609
26.0618839263916 -10.651025772094727 -6.850864410400391
26.004356384277344 -10.804186820983887 -6.837910175323486
25.860828399658203 -10.918179512023926 -6.806265354156494
8.861688613891602 -20.270782470703125 -3.068732261657715
8.905651092529297 -21.211074829101562 -3.07597017288208
10.520925521850586 -24.05133056640625 -3.4217262268066406
5.243892669677734 -28.21334457397461 -2.2583179473876953
5.453227996826172 -31.31661605834961 -2.296241283416748
5.2370147705078125 -32.5582160949707 -2.2458763122558594
10.313323974609375 -29.333316802978516 -3.363071918487549
10.604820251464844 -29.920120239257812 -3.425281047821045
-30.98674964904785 56.83143615722656 8.622172355651855
-29.942201614379883 52.41051483154297 8.342288970947266
-31.647233963012695 50.98052978515625 8.799149513244629
-32.899810791015625 48.938148498535156 9.134772300720215
23.512630462646484 -7.092224597930908 -5.980822563171387
23.63765525817871 -7.531044960021973 -6.014322280883789
23.658266067504883 -7.868495464324951 -6.019845008850098
26.008947372436523 -10.011194229125977 -6.649704933166504
26.090543746948242 -10.263923645019531 -6.671568870544434
26.1214599609375 -10.473129272460938 -6.679852485656738
26.110458374023438 -10.6521635055542 -6.676905155181885
26.05538558959961 -10.806278228759766 -6.662148475646973
25.913572311401367 -10.920088768005371 -6.624149322509766
-22.648347854614258 11.607633590698242 6.387917518615723
-21.981035232543945 8.683420181274414 6.209113121032715
-21.42840003967285 5.881633758544922 6.061036109924316
-20.96158790588379 3.175325393676758 5.935955047607422
-20.581270217895508 0.5513467788696289 5.834049224853516
-20.28810691833496 -2.00344181060791 5.755496978759766
-20.11274528503418 -4.497135162353516 5.70850944519043
-20.05607032775879 -6.947256088256836 5.693325042724609
-20.088869094848633 -9.373458862304688 5.70211124420166
-20.241987228393555 -11.788217544555664 5.743139266967773
-20.516321182250977 -14.209056854248047 5.816647529602051
-20.88242530822754 -16.651248931884766 5.914745330810547
-21.371381759643555 -19.131649017333984 6.045760154724121
-21.95359230041504 -21.662609100341797 6.2017621994018555
-22.629728317260742 -24.257274627685547 6.382931709289551
-23.431093215942383 -26.93687629699707 6.597655296325684
-24.32786750793457 -29.709392547607422 6.837944984436035
9.130481719970703 -20.265277862548828 -2.127152919769287
9.173345565795898 -21.204837799072266 -2.138638496398926
-27.5664005279541 -38.701904296875 7.705705642700195
-28.82042121887207 -41.96064376831055 8.041716575622559
-30.17304039001465 -45.375083923339844 8.404149055480957
10.751426696777344 -24.05133056640625 -2.561481475830078
5.552650451660156 -28.20345687866211 -1.1684799194335938
-34.641387939453125 -56.55668640136719 9.601433753967285
-36.237762451171875 -60.6031494140625 10.029179573059082
5.75755500793457 -31.30453872680664 -1.223383903503418
5.543270111083984 -32.54541015625 -1.1659660339355469
10.543067932128906 -29.333316802978516 -2.50565242767334
10.846429824829102 -29.905853271484375 -2.5869369506835938
24.662065505981445 -7.002572536468506 -6.0166754722595215
24.7652530670166 -7.394341468811035 -6.050569534301758
24.869054794311523 -7.774062633514404 -6.084627628326416
24.966367721557617 -8.13463020324707 -6.1165690422058105
25.06425666809082 -8.483880996704102 -6.148664951324463
25.15558433532715 -8.81544017791748 -6.178624153137207
25.243871688842773 -9.133406639099121 -6.207579612731934
26.05375862121582 -10.00837230682373 -6.467924118041992
26.134164810180664 -10.261283874511719 -6.494199752807617
26.16455078125 -10.470672607421875 -6.504423141479492
26.153564453125 -10.64988899230957 -6.501384735107422
26.09907341003418 -10.804186820983887 -6.484418869018555
25.955318450927734 -10.91627025604248 -6.438898086547852
25.74530029296875 -11.010782241821289 -6.372215270996094
25.79358673095703 -11.235010147094727 -6.388181209564209
25.8385066986084 -11.452034950256348 -6.403056621551514
25.87269401550293 -11.660046577453613 -6.414487838745117
25.903423309326172 -11.862680435180664 -6.424803256988525
25.923288345336914 -12.058856010437012 -6.431640148162842
25.935903549194336 -12.250848770141602 -6.436155796051025
25.939361572265625 -12.43952751159668 -6.437744140625
25.937305450439453 -12.626529693603516 -6.437572479248047
25.92597198486328 -12.812591552734375 -6.434440612792969
25.90528678894043 -12.999083518981934 -6.428330421447754
25.877056121826172 -13.187232971191406 -6.4198198318481445
25.841222763061523 -13.378135681152344 -6.408894062042236
25.797733306884766 -13.572885513305664 -6.395537376403809
25.742755889892578 -13.773408889770508 -6.378535270690918
25.68377113342285 -13.979325294494629 -6.3602705001831055
25.616962432861328 -14.192375183105469 -6.3395304679870605
25.538471221923828 -14.415030479431152 -6.315093040466309
25.45583724975586 -14.645816802978516 -6.289355278015137
25.369028091430664 -14.885281562805176 -6.262310028076172
25.27419090270996 -15.135896682739258 -6.232734680175781
25.171268463134766 -15.398756980895996 -6.200614929199219
25.064050674438477 -15.67266845703125 -6.1671552658081055
24.94865608215332 -15.960651397705078 -6.1311259269714355
24.828893661499023 -16.261144638061523 -6.09373664855957
24.704734802246094 -16.57469940185547 -6.054980754852295
24.576152801513672 -16.901859283447266 -6.01485013961792
24.443119049072266 -17.243175506591797 -5.973337173461914
24.30950927734375 -17.595808029174805 -5.931670188903809
24.167499542236328 -17.96689224243164 -5.887373924255371
27.124452590942383 -9.827340126037598 -6.665112018585205
27.176729202270508 -10.030659675598145 -6.685553550720215
27.22932243347168 -10.227771759033203 -6.706079959869385
27.280479431152344 -10.416902542114258 -6.726032733917236
27.32843017578125 -10.596639633178711 -6.744747638702393
27.37666893005371 -10.770716667175293 -6.763539791107178
27.42166519165039 -10.936131477355957 -6.7810845375061035
27.465160369873047 -11.094841003417969 -6.798038005828857
27.50714111328125 -11.247119903564453 -6.814396381378174
27.54759407043457 -11.393240928649902 -6.830155849456787
27.582935333251953 -11.531204223632812 -6.843978404998779
27.618492126464844 -11.664969444274902 -6.857858180999756
27.648881912231445 -11.791672706604004 -6.869785785675049
27.677658081054688 -11.913860321044922 -6.881092548370361
27.703006744384766 -12.031036376953125 -6.891101360321045
27.724899291992188 -12.143747329711914 -6.899806022644043
27.74330711364746 -12.252541542053223 -6.907198905944824
27.756385803222656 -12.357467651367188 -6.912595748901367
27.767736434936523 -12.460161209106445 -6.917340278625488
27.773693084716797 -12.560264587402344 -6.920071601867676
27.776044845581055 -12.658823013305664 -6.921459197998047
27.774763107299805 -12.756385803222656 -6.921494007110596
27.767982482910156 -12.8534574508667 -6.919487476348877
27.75934600830078 -12.950761795043945 -6.916795253753662
27.743295669555664 -13.048993110656738 -6.911358833312988
27.7253360748291 -13.148550987243652 -6.905221939086914
27.701736450195312 -13.250356674194336 -6.897006034851074
27.67431640625 -13.354817390441895 -6.887388229370117
27.644920349121094 -13.461973190307617 -6.877050876617432
27.609783172607422 -13.573293685913086 -6.8646087646484375
27.57074546813965 -13.688911437988281 -6.850741863250732
27.52777862548828 -13.80937385559082 -6.83544397354126
27.482738494873047 -13.934358596801758 -6.819401264190674
27.4337215423584 -14.06510066986084 -6.801914691925049
27.380699157714844 -14.202147483825684 -6.782976150512695
27.325546264648438 -14.344902992248535 -6.763277530670166
27.266340255737305 -14.494876861572266 -6.742114543914795
27.20687484741211 -14.6499605178833 -6.720882415771484
27.143321990966797 -14.812993049621582 -6.69817590713501
27.077571868896484 -14.983012199401855 -6.674691200256348
27.0076847076416 -15.16189193725586 -6.649720668792725
26.93749237060547 -15.346795082092285 -6.624667644500732
26.865062713623047 -15.539506912231445 -6.598825454711914
27.986845016479492 -10.816418647766113 -6.891409873962402
28.02251434326172 -10.955133438110352 -6.907638072967529
28.056678771972656 -11.087691307067871 -6.923179626464844
28.090187072753906 -11.215253829956055 -6.938403129577637
28.123035430908203 -11.337957382202148 -6.953307628631592
28.15434455871582 -11.455142974853516 -6.9675164222717285
28.184974670410156 -11.567835807800293 -6.981400966644287
28.21316909790039 -11.674760818481445 -6.994207382202148
28.24153709411621 -11.778308868408203 -7.0070600509643555
28.26744270324707 -11.87663745880127 -7.018826961517334
28.291746139526367 -11.970725059509277 -7.029881000518799
28.31443214416504 -12.060846328735352 -7.040217876434326
28.334604263305664 -12.146797180175781 -7.049455165863037
28.354015350341797 -12.229852676391602 -7.058346271514893
28.36998748779297 -12.308989524841309 -7.065748691558838
28.384279251098633 -12.385438919067383 -7.07241678237915
28.396875381469727 -12.45947265625 -7.0783467292785645
28.405969619750977 -12.530867576599121 -7.082770824432373
28.413331985473633 -12.600577354431152 -7.086446762084961
28.417144775390625 -12.668560028076172 -7.088603973388672
28.419187545776367 -12.735588073730469 -7.09000301361084
28.41763687133789 -12.801802635192871 -7.089870929718018
28.41337013244629 -12.86777114868164 -7.08858585357666
28.406368255615234 -12.933905601501465 -7.086142063140869
28.396610260009766 -13.000616073608398 -7.082533359527588
28.38407325744629 -13.068312644958496 -7.077754974365234
28.368738174438477 -13.137407302856445 -7.07180118560791
28.350584030151367 -13.2083101272583 -7.064665794372559
28.33051109313965 -13.28117847442627 -7.056732654571533
28.306657791137695 -13.356884956359863 -7.047218322753906
28.28084945678711 -13.435286521911621 -7.036896705627441
28.253070831298828 -13.516658782958984 -7.025763511657715
28.222379684448242 -13.601709365844727 -7.013422966003418
28.18968391418457 -13.690369606018066 -7.00026273727417
28.15497398376465 -13.782913208007812 -6.986278533935547
28.11823272705078 -13.879612922668457 -6.971466064453125
28.079450607299805 -13.980742454528809 -6.955822467803955
28.03860855102539 -14.086576461791992 -6.939343452453613
27.996641159057617 -14.196680068969727 -6.922420978546143
27.952590942382812 -14.311944007873535 -6.904656887054443
27.906448364257812 -14.432641983032227 -6.886047840118408
27.86009979248047 -14.557355880737305 -6.86738395690918
27.8116397857666 -14.687870025634766 -6.847869873046875
28.426668167114258 -11.320694923400879 -7.006278991699219
28.452754974365234 -11.42520523071289 -7.01989221572876
28.478153228759766 -11.52558708190918 -7.033132076263428
28.502859115600586 -11.621977806091309 -7.04599666595459
28.52686309814453 -11.714513778686523 -7.0584845542907715
28.55015754699707 -11.803332328796387 -7.070593357086182
28.572738647460938 -11.888570785522461 -7.0823211669921875
28.59373664855957 -11.969659805297852 -7.093245983123779
28.61400032043457 -12.04753303527832 -7.103785514831543
28.633522033691406 -12.12232780456543 -7.113936901092529
28.651430130004883 -12.193612098693848 -7.123276710510254
28.667705535888672 -12.2616605758667 -7.131801605224609
28.683212280273438 -12.327223777770996 -7.139930725097656
28.697065353393555 -12.390006065368652 -7.147238254547119
28.709251403808594 -12.45028305053711 -7.153720855712891
28.719757080078125 -12.508326530456543 -7.159374237060547
28.72856903076172 -12.564412117004395 -7.1641950607299805
28.73567008972168 -12.618812561035156 -7.168179988861084
28.74104881286621 -12.671802520751953 -7.171324253082275
28.74380111694336 -12.72349739074707 -7.173197269439697
28.74479866027832 -12.774419784545898 -7.174221515655518
28.744028091430664 -12.824843406677246 -7.174393653869629
28.740575790405273 -12.875022888183594 -7.173279285430908
28.735322952270508 -12.925341606140137 -7.171304225921631
28.728256225585938 -12.976076126098633 -7.168464183807373
28.719356536865234 -13.027498245239258 -7.164755344390869
28.70771026611328 -13.08004379272461 -7.1597418785095215
28.69420051574707 -13.133916854858398 -7.15385103225708
28.678815841674805 -13.189390182495117 -7.1470794677734375
28.661540985107422 -13.246739387512207 -7.139422416687012
28.642362594604492 -13.30623722076416 -7.1308770179748535
28.621265411376953 -13.368156433105469 -7.121439456939697
28.598236083984375 -13.432772636413574 -7.111105442047119
28.57418441772461 -13.4998779296875 -7.100307941436768
28.548175811767578 -13.570135116577148 -7.088608264923096
28.52112579345703 -13.643247604370117 -7.07643985748291
28.492097854614258 -13.71996784210205 -7.0633625984191895
28.462007522583008 -13.799908638000488 -7.049812316894531
28.430850982666016 -13.883204460144043 -7.035786151885986
28.397682189941406 -13.970748901367188 -7.020842552185059
28.363426208496094 -14.062013626098633 -7.0054192543029785
28.329017639160156 -14.156291007995605 -6.989954471588135
28.292572021484375 -14.255363464355469 -6.973564624786377
28.691526412963867 -11.624080657958984 -7.074455738067627
28.712038040161133 -11.708227157592773 -7.086575031280518
28.732677459716797 -11.789817810058594 -7.098729133605957
28.751768112182617 -11.867077827453613 -7.109994888305664
28.770978927612305 -11.941964149475098 -7.121293067932129
28.788619995117188 -12.012883186340332 -7.131697177886963
28.806373596191406 -12.081612586975098 -7.142131805419922
28.823389053344727 -12.147445678710938 -7.1521315574646
28.839658737182617 -12.210518836975098 -7.16169548034668
28.85389518737793 -12.270049095153809 -7.170123100280762
28.868223190307617 -12.327799797058105 -7.178574562072754
28.8813533782959 -12.382986068725586 -7.1863508224487305
28.893274307250977 -12.435812950134277 -7.193448543548584
28.903976440429688 -12.48648738861084 -7.199864864349365
28.913450241088867 -12.535212516784668 -7.205596923828125
28.92168617248535 -12.582195281982422 -7.210641860961914
28.928668975830078 -12.627640724182129 -7.214997291564941
28.933958053588867 -12.671629905700684 -7.2184247970581055
28.937971115112305 -12.714537620544434 -7.221156120300293
28.940263748168945 -12.756490707397461 -7.2229533195495605
